#Generated by Depth2Mesh
0.221875	-0.0791667	0.247059
0.225	-0.0791667	0.247059
0.228125	-0.0791667	0.247059
0.23125	-0.0791667	0.227451
0.234375	-0.0791667	0.176471
0.2375	-0.0791667	0.0901961
0.240625	-0.0791667	0.0313726
0.24375	-0.0791667	0.00392157
0.25	-0.0791667	0.0196078
0.253125	-0.0791667	0.0705882
0.25625	-0.0791667	0.160784
0.259375	-0.0791667	0.211765
0.2625	-0.0791667	0.231373
0.265625	-0.0791667	0.231373
0.26875	-0.0791667	0.231373
0.271875	-0.0791667	0.231373
0.275	-0.0791667	0.231373
0.278125	-0.0791667	0.231373
0.28125	-0.0791667	0.231373
0.284375	-0.0791667	0.227451
0.2875	-0.0791667	0.223529
0.290625	-0.0791667	0.223529
0.29375	-0.0791667	0.223529
0.296875	-0.0791667	0.219608
0.3	-0.0791667	0.219608
0.303125	-0.0791667	0.219608
0.30625	-0.0791667	0.219608
0.309375	-0.0791667	0.215686
0.3125	-0.0791667	0.215686
0.315625	-0.0791667	0.215686
0.31875	-0.0791667	0.215686
0.321875	-0.0791667	0.211765
0.325	-0.0791667	0.211765
0.328125	-0.0791667	0.207843
0.33125	-0.0791667	0.203922
0.334375	-0.0791667	0.203922
0.3375	-0.0791667	0.2
0.340625	-0.0791667	0.196078
0.34375	-0.0791667	0.196078
0.346875	-0.0791667	0.196078
0.35	-0.0791667	0.196078
0.353125	-0.0791667	0.196078
0.35625	-0.0791667	0.196078
0.359375	-0.0791667	0.196078
0.3625	-0.0791667	0.196078
0.365625	-0.0791667	0.196078
0.36875	-0.0791667	0.196078
0.371875	-0.0791667	0.196078
0.375	-0.0791667	0.192157
0.378125	-0.0791667	0.192157
0.38125	-0.0791667	0.192157
0.384375	-0.0791667	0.192157
0.3875	-0.0791667	0.188235
0.390625	-0.0791667	0.188235
0.39375	-0.0791667	0.188235
0.396875	-0.0791667	0.188235
0.4	-0.0791667	0.188235
0.403125	-0.0791667	0.188235
0.40625	-0.0791667	0.184314
0.409375	-0.0791667	0.184314
0.4125	-0.0791667	0.180392
0.415625	-0.0791667	0.180392
0.41875	-0.0791667	0.180392
0.421875	-0.0791667	0.176471
0.425	-0.0791667	0.176471
0.428125	-0.0791667	0.168627
0.43125	-0.0791667	0.152941
0.434375	-0.0791667	0.113725
0.4375	-0.0791667	0.0470588
0.440625	-0.0791667	0.0117647
-0.3875	-0.075	0.00392157
-0.384375	-0.075	0.0235294
-0.38125	-0.075	0.0666667
-0.378125	-0.075	0.117647
-0.375	-0.075	0.160784
-0.371875	-0.075	0.180392
-0.36875	-0.075	0.184314
-0.365625	-0.075	0.188235
-0.3625	-0.075	0.188235
-0.359375	-0.075	0.188235
-0.35625	-0.075	0.188235
-0.353125	-0.075	0.188235
-0.35	-0.075	0.188235
-0.346875	-0.075	0.188235
-0.34375	-0.075	0.188235
-0.340625	-0.075	0.188235
-0.3375	-0.075	0.188235
-0.334375	-0.075	0.188235
-0.33125	-0.075	0.188235
-0.328125	-0.075	0.188235
-0.325	-0.075	0.188235
-0.321875	-0.075	0.188235
-0.31875	-0.075	0.192157
-0.315625	-0.075	0.192157
-0.3125	-0.075	0.192157
-0.309375	-0.075	0.192157
-0.30625	-0.075	0.192157
-0.303125	-0.075	0.192157
-0.3	-0.075	0.192157
-0.296875	-0.075	0.2
-0.29375	-0.075	0.207843
-0.290625	-0.075	0.215686
-0.2875	-0.075	0.215686
-0.284375	-0.075	0.215686
-0.28125	-0.075	0.215686
-0.278125	-0.075	0.219608
-0.275	-0.075	0.223529
-0.271875	-0.075	0.227451
-0.26875	-0.075	0.227451
-0.265625	-0.075	0.231373
-0.2625	-0.075	0.231373
-0.259375	-0.075	0.231373
-0.25625	-0.075	0.231373
-0.253125	-0.075	0.231373
-0.25	-0.075	0.235294
-0.246875	-0.075	0.235294
-0.24375	-0.075	0.235294
-0.240625	-0.075	0.235294
-0.2375	-0.075	0.235294
-0.234375	-0.075	0.239216
-0.23125	-0.075	0.239216
-0.228125	-0.075	0.239216
-0.225	-0.075	0.239216
-0.221875	-0.075	0.239216
-0.21875	-0.075	0.243137
-0.215625	-0.075	0.243137
-0.2125	-0.075	0.243137
-0.209375	-0.075	0.243137
-0.20625	-0.075	0.243137
-0.203125	-0.075	0.243137
-0.2	-0.075	0.243137
-0.196875	-0.075	0.247059
-0.19375	-0.075	0.247059
-0.190625	-0.075	0.247059
-0.1875	-0.075	0.247059
-0.184375	-0.075	0.247059
-0.18125	-0.075	0.247059
-0.178125	-0.075	0.247059
-0.175	-0.075	0.247059
-0.171875	-0.075	0.25098
-0.16875	-0.075	0.25098
-0.165625	-0.075	0.254902
-0.1625	-0.075	0.254902
-0.159375	-0.075	0.254902
-0.15625	-0.075	0.254902
-0.153125	-0.075	0.258824
-0.15	-0.075	0.258824
-0.146875	-0.075	0.258824
-0.14375	-0.075	0.258824
-0.140625	-0.075	0.258824
-0.1375	-0.075	0.258824
-0.134375	-0.075	0.258824
-0.13125	-0.075	0.258824
-0.128125	-0.075	0.258824
-0.125	-0.075	0.258824
-0.121875	-0.075	0.262745
-0.11875	-0.075	0.262745
-0.115625	-0.075	0.262745
-0.1125	-0.075	0.262745
-0.109375	-0.075	0.262745
-0.10625	-0.075	0.262745
-0.103125	-0.075	0.266667
-0.1	-0.075	0.266667
-0.096875	-0.075	0.266667
-0.09375	-0.075	0.266667
-0.090625	-0.075	0.266667
-0.0875	-0.075	0.266667
-0.084375	-0.075	0.266667
-0.08125	-0.075	0.266667
-0.078125	-0.075	0.266667
-0.075	-0.075	0.266667
-0.071875	-0.075	0.266667
-0.06875	-0.075	0.266667
-0.065625	-0.075	0.270588
-0.0625	-0.075	0.270588
-0.059375	-0.075	0.270588
-0.05625	-0.075	0.27451
-0.053125	-0.075	0.27451
-0.05	-0.075	0.27451
-0.046875	-0.075	0.27451
-0.04375	-0.075	0.27451
-0.040625	-0.075	0.27451
-0.0375	-0.075	0.27451
-0.034375	-0.075	0.27451
-0.03125	-0.075	0.278431
-0.028125	-0.075	0.278431
-0.025	-0.075	0.278431
-0.021875	-0.075	0.278431
-0.01875	-0.075	0.278431
-0.015625	-0.075	0.278431
-0.0125	-0.075	0.278431
-0.00937498	-0.075	0.278431
-0.00625002	-0.075	0.278431
-0.00312501	-0.075	0.278431
0	-0.075	0.278431
0.00312495	-0.075	0.278431
0.00625002	-0.075	0.282353
0.00937498	-0.075	0.282353
0.0125	-0.075	0.282353
0.015625	-0.075	0.282353
0.01875	-0.075	0.282353
0.021875	-0.075	0.282353
0.025	-0.075	0.282353
0.028125	-0.075	0.282353
0.03125	-0.075	0.282353
0.034375	-0.075	0.282353
0.0375	-0.075	0.282353
0.040625	-0.075	0.282353
0.04375	-0.075	0.282353
0.046875	-0.075	0.282353
0.05	-0.075	0.282353
0.053125	-0.075	0.282353
0.05625	-0.075	0.282353
0.059375	-0.075	0.282353
0.0625	-0.075	0.282353
0.065625	-0.075	0.278431
0.06875	-0.075	0.278431
0.071875	-0.075	0.278431
0.075	-0.075	0.278431
0.078125	-0.075	0.278431
0.08125	-0.075	0.278431
0.084375	-0.075	0.278431
0.0875	-0.075	0.278431
0.090625	-0.075	0.278431
0.09375	-0.075	0.278431
0.096875	-0.075	0.278431
0.1	-0.075	0.278431
0.103125	-0.075	0.278431
0.10625	-0.075	0.278431
0.109375	-0.075	0.278431
0.1125	-0.075	0.278431
0.115625	-0.075	0.278431
0.11875	-0.075	0.278431
0.121875	-0.075	0.278431
0.125	-0.075	0.27451
0.128125	-0.075	0.27451
0.13125	-0.075	0.27451
0.134375	-0.075	0.27451
0.1375	-0.075	0.27451
0.140625	-0.075	0.27451
0.14375	-0.075	0.27451
0.146875	-0.075	0.27451
0.15	-0.075	0.27451
0.153125	-0.075	0.27451
0.15625	-0.075	0.27451
0.159375	-0.075	0.27451
0.1625	-0.075	0.27451
0.165625	-0.075	0.27451
0.16875	-0.075	0.270588
0.171875	-0.075	0.270588
0.175	-0.075	0.270588
0.178125	-0.075	0.270588
0.18125	-0.075	0.270588
0.184375	-0.075	0.266667
0.1875	-0.075	0.266667
0.190625	-0.075	0.266667
0.19375	-0.075	0.266667
0.196875	-0.075	0.262745
0.2	-0.075	0.262745
0.203125	-0.075	0.258824
0.20625	-0.075	0.258824
0.209375	-0.075	0.258824
0.2125	-0.075	0.254902
0.215625	-0.075	0.254902
0.21875	-0.075	0.25098
0.221875	-0.075	0.25098
0.225	-0.075	0.247059
0.228125	-0.075	0.247059
0.23125	-0.075	0.235294
0.234375	-0.075	0.192157
0.2375	-0.075	0.121569
0.240625	-0.075	0.0588235
0.24375	-0.075	0.0196078
0.246875	-0.075	0.00392157
0.25	-0.075	0.0196078
0.253125	-0.075	0.0705882
0.25625	-0.075	0.160784
0.259375	-0.075	0.211765
0.2625	-0.075	0.231373
0.265625	-0.075	0.231373
0.26875	-0.075	0.231373
0.271875	-0.075	0.231373
0.275	-0.075	0.231373
0.278125	-0.075	0.231373
0.28125	-0.075	0.231373
0.284375	-0.075	0.227451
0.2875	-0.075	0.223529
0.290625	-0.075	0.223529
0.29375	-0.075	0.223529
0.296875	-0.075	0.219608
0.3	-0.075	0.219608
0.303125	-0.075	0.219608
0.30625	-0.075	0.219608
0.309375	-0.075	0.219608
0.3125	-0.075	0.215686
0.315625	-0.075	0.215686
0.31875	-0.075	0.215686
0.321875	-0.075	0.211765
0.325	-0.075	0.211765
0.328125	-0.075	0.207843
0.33125	-0.075	0.203922
0.334375	-0.075	0.203922
0.3375	-0.075	0.2
0.340625	-0.075	0.196078
0.34375	-0.075	0.196078
0.346875	-0.075	0.196078
0.35	-0.075	0.196078
0.353125	-0.075	0.196078
0.35625	-0.075	0.196078
0.359375	-0.075	0.196078
0.3625	-0.075	0.196078
0.365625	-0.075	0.196078
0.36875	-0.075	0.196078
0.371875	-0.075	0.196078
0.375	-0.075	0.192157
0.378125	-0.075	0.192157
0.38125	-0.075	0.192157
0.384375	-0.075	0.192157
0.3875	-0.075	0.188235
0.390625	-0.075	0.188235
0.39375	-0.075	0.188235
0.396875	-0.075	0.188235
0.4	-0.075	0.188235
0.403125	-0.075	0.188235
0.40625	-0.075	0.184314
0.409375	-0.075	0.180392
0.4125	-0.075	0.180392
0.415625	-0.075	0.180392
0.41875	-0.075	0.180392
0.421875	-0.075	0.176471
0.425	-0.075	0.176471
0.428125	-0.075	0.168627
0.43125	-0.075	0.145098
0.434375	-0.075	0.0980392
0.4375	-0.075	0.0392157
0.440625	-0.075	0.00784314
-0.3875	-0.0708333	0.0117647
-0.384375	-0.0708333	0.0431373
-0.38125	-0.0708333	0.101961
-0.378125	-0.0708333	0.14902
-0.375	-0.0708333	0.176471
-0.371875	-0.0708333	0.184314
-0.36875	-0.0708333	0.184314
-0.365625	-0.0708333	0.188235
-0.3625	-0.0708333	0.188235
-0.359375	-0.0708333	0.188235
-0.35625	-0.0708333	0.188235
-0.353125	-0.0708333	0.188235
-0.35	-0.0708333	0.188235
-0.346875	-0.0708333	0.188235
-0.34375	-0.0708333	0.188235
-0.340625	-0.0708333	0.188235
-0.3375	-0.0708333	0.188235
-0.334375	-0.0708333	0.188235
-0.33125	-0.0708333	0.188235
-0.328125	-0.0708333	0.188235
-0.325	-0.0708333	0.188235
-0.321875	-0.0708333	0.188235
-0.31875	-0.0708333	0.188235
-0.315625	-0.0708333	0.188235
-0.3125	-0.0708333	0.192157
-0.309375	-0.0708333	0.192157
-0.30625	-0.0708333	0.192157
-0.303125	-0.0708333	0.192157
-0.3	-0.0708333	0.192157
-0.296875	-0.0708333	0.2
-0.29375	-0.0708333	0.207843
-0.290625	-0.0708333	0.215686
-0.2875	-0.0708333	0.215686
-0.284375	-0.0708333	0.215686
-0.28125	-0.0708333	0.215686
-0.278125	-0.0708333	0.219608
-0.275	-0.0708333	0.223529
-0.271875	-0.0708333	0.227451
-0.26875	-0.0708333	0.227451
-0.265625	-0.0708333	0.231373
-0.2625	-0.0708333	0.231373
-0.259375	-0.0708333	0.231373
-0.25625	-0.0708333	0.231373
-0.253125	-0.0708333	0.231373
-0.25	-0.0708333	0.235294
-0.246875	-0.0708333	0.235294
-0.24375	-0.0708333	0.235294
-0.240625	-0.0708333	0.235294
-0.2375	-0.0708333	0.235294
-0.234375	-0.0708333	0.239216
-0.23125	-0.0708333	0.239216
-0.228125	-0.0708333	0.239216
-0.225	-0.0708333	0.239216
-0.221875	-0.0708333	0.239216
-0.21875	-0.0708333	0.243137
-0.215625	-0.0708333	0.243137
-0.2125	-0.0708333	0.243137
-0.209375	-0.0708333	0.243137
-0.20625	-0.0708333	0.243137
-0.203125	-0.0708333	0.243137
-0.2	-0.0708333	0.243137
-0.196875	-0.0708333	0.247059
-0.19375	-0.0708333	0.247059
-0.190625	-0.0708333	0.247059
-0.1875	-0.0708333	0.247059
-0.184375	-0.0708333	0.247059
-0.18125	-0.0708333	0.247059
-0.178125	-0.0708333	0.247059
-0.175	-0.0708333	0.247059
-0.171875	-0.0708333	0.25098
-0.16875	-0.0708333	0.25098
-0.165625	-0.0708333	0.25098
-0.1625	-0.0708333	0.254902
-0.159375	-0.0708333	0.254902
-0.15625	-0.0708333	0.254902
-0.153125	-0.0708333	0.254902
-0.15	-0.0708333	0.258824
-0.146875	-0.0708333	0.258824
-0.14375	-0.0708333	0.258824
-0.140625	-0.0708333	0.258824
-0.1375	-0.0708333	0.258824
-0.134375	-0.0708333	0.258824
-0.13125	-0.0708333	0.258824
-0.128125	-0.0708333	0.258824
-0.125	-0.0708333	0.258824
-0.121875	-0.0708333	0.262745
-0.11875	-0.0708333	0.262745
-0.115625	-0.0708333	0.262745
-0.1125	-0.0708333	0.262745
-0.109375	-0.0708333	0.262745
-0.10625	-0.0708333	0.262745
-0.103125	-0.0708333	0.266667
-0.1	-0.0708333	0.266667
-0.096875	-0.0708333	0.266667
-0.09375	-0.0708333	0.266667
-0.090625	-0.0708333	0.266667
-0.0875	-0.0708333	0.266667
-0.084375	-0.0708333	0.266667
-0.08125	-0.0708333	0.266667
-0.078125	-0.0708333	0.266667
-0.075	-0.0708333	0.266667
-0.071875	-0.0708333	0.266667
-0.06875	-0.0708333	0.266667
-0.065625	-0.0708333	0.266667
-0.0625	-0.0708333	0.270588
-0.059375	-0.0708333	0.270588
-0.05625	-0.0708333	0.270588
-0.053125	-0.0708333	0.27451
-0.05	-0.0708333	0.27451
-0.046875	-0.0708333	0.27451
-0.04375	-0.0708333	0.27451
-0.040625	-0.0708333	0.27451
-0.0375	-0.0708333	0.27451
-0.034375	-0.0708333	0.27451
-0.03125	-0.0708333	0.278431
-0.028125	-0.0708333	0.278431
-0.025	-0.0708333	0.278431
-0.021875	-0.0708333	0.278431
-0.01875	-0.0708333	0.278431
-0.015625	-0.0708333	0.278431
-0.0125	-0.0708333	0.278431
-0.00937498	-0.0708333	0.278431
-0.00625002	-0.0708333	0.278431
-0.00312501	-0.0708333	0.278431
0	-0.0708333	0.278431
0.00312495	-0.0708333	0.278431
0.00625002	-0.0708333	0.282353
0.00937498	-0.0708333	0.282353
0.0125	-0.0708333	0.282353
0.015625	-0.0708333	0.282353
0.01875	-0.0708333	0.282353
0.021875	-0.0708333	0.282353
0.025	-0.0708333	0.282353
0.028125	-0.0708333	0.282353
0.03125	-0.0708333	0.282353
0.034375	-0.0708333	0.282353
0.0375	-0.0708333	0.282353
0.040625	-0.0708333	0.282353
0.04375	-0.0708333	0.282353
0.046875	-0.0708333	0.282353
0.05	-0.0708333	0.282353
0.053125	-0.0708333	0.282353
0.05625	-0.0708333	0.282353
0.059375	-0.0708333	0.278431
0.0625	-0.0708333	0.278431
0.065625	-0.0708333	0.278431
0.06875	-0.0708333	0.278431
0.071875	-0.0708333	0.278431
0.075	-0.0708333	0.278431
0.078125	-0.0708333	0.278431
0.08125	-0.0708333	0.278431
0.084375	-0.0708333	0.278431
0.0875	-0.0708333	0.278431
0.090625	-0.0708333	0.278431
0.09375	-0.0708333	0.278431
0.096875	-0.0708333	0.278431
0.1	-0.0708333	0.278431
0.103125	-0.0708333	0.278431
0.10625	-0.0708333	0.278431
0.109375	-0.0708333	0.278431
0.1125	-0.0708333	0.278431
0.115625	-0.0708333	0.278431
0.11875	-0.0708333	0.278431
0.121875	-0.0708333	0.278431
0.125	-0.0708333	0.27451
0.128125	-0.0708333	0.27451
0.13125	-0.0708333	0.27451
0.134375	-0.0708333	0.27451
0.1375	-0.0708333	0.27451
0.140625	-0.0708333	0.27451
0.14375	-0.0708333	0.27451
0.146875	-0.0708333	0.27451
0.15	-0.0708333	0.27451
0.153125	-0.0708333	0.27451
0.15625	-0.0708333	0.27451
0.159375	-0.0708333	0.27451
0.1625	-0.0708333	0.27451
0.165625	-0.0708333	0.270588
0.16875	-0.0708333	0.270588
0.171875	-0.0708333	0.270588
0.175	-0.0708333	0.270588
0.178125	-0.0708333	0.270588
0.18125	-0.0708333	0.270588
0.184375	-0.0708333	0.266667
0.1875	-0.0708333	0.266667
0.190625	-0.0708333	0.266667
0.19375	-0.0708333	0.266667
0.196875	-0.0708333	0.266667
0.2	-0.0708333	0.262745
0.203125	-0.0708333	0.258824
0.20625	-0.0708333	0.258824
0.209375	-0.0708333	0.258824
0.2125	-0.0708333	0.258824
0.215625	-0.0708333	0.254902
0.21875	-0.0708333	0.254902
0.221875	-0.0708333	0.25098
0.225	-0.0708333	0.247059
0.228125	-0.0708333	0.247059
0.23125	-0.0708333	0.239216
0.234375	-0.0708333	0.211765
0.2375	-0.0708333	0.156863
0.240625	-0.0708333	0.0941176
0.24375	-0.0708333	0.0431373
0.246875	-0.0708333	0.0117647
0.25	-0.0708333	0.0235294
0.253125	-0.0708333	0.0745098
0.25625	-0.0708333	0.160784
0.259375	-0.0708333	0.215686
0.2625	-0.0708333	0.231373
0.265625	-0.0708333	0.235294
0.26875	-0.0708333	0.235294
0.271875	-0.0708333	0.231373
0.275	-0.0708333	0.231373
0.278125	-0.0708333	0.231373
0.28125	-0.0708333	0.231373
0.284375	-0.0708333	0.227451
0.2875	-0.0708333	0.227451
0.290625	-0.0708333	0.223529
0.29375	-0.0708333	0.223529
0.296875	-0.0708333	0.219608
0.3	-0.0708333	0.219608
0.303125	-0.0708333	0.219608
0.30625	-0.0708333	0.219608
0.309375	-0.0708333	0.219608
0.3125	-0.0708333	0.219608
0.315625	-0.0708333	0.219608
0.31875	-0.0708333	0.215686
0.321875	-0.0708333	0.211765
0.325	-0.0708333	0.211765
0.328125	-0.0708333	0.207843
0.33125	-0.0708333	0.203922
0.334375	-0.0708333	0.203922
0.3375	-0.0708333	0.2
0.340625	-0.0708333	0.196078
0.34375	-0.0708333	0.196078
0.346875	-0.0708333	0.196078
0.35	-0.0708333	0.196078
0.353125	-0.0708333	0.196078
0.35625	-0.0708333	0.196078
0.359375	-0.0708333	0.196078
0.3625	-0.0708333	0.196078
0.365625	-0.0708333	0.196078
0.36875	-0.0708333	0.196078
0.371875	-0.0708333	0.196078
0.375	-0.0708333	0.192157
0.378125	-0.0708333	0.192157
0.38125	-0.0708333	0.188235
0.384375	-0.0708333	0.188235
0.3875	-0.0708333	0.188235
0.390625	-0.0708333	0.188235
0.39375	-0.0708333	0.188235
0.396875	-0.0708333	0.188235
0.4	-0.0708333	0.188235
0.403125	-0.0708333	0.188235
0.40625	-0.0708333	0.184314
0.409375	-0.0708333	0.180392
0.4125	-0.0708333	0.180392
0.415625	-0.0708333	0.180392
0.41875	-0.0708333	0.180392
0.421875	-0.0708333	0.176471
0.425	-0.0708333	0.172549
0.428125	-0.0708333	0.164706
0.43125	-0.0708333	0.129412
0.434375	-0.0708333	0.0745098
0.4375	-0.0708333	0.0235294
0.440625	-0.0708333	0.00392157
-0.3875	-0.0666667	0.0156863
-0.384375	-0.0666667	0.0588235
-0.38125	-0.0666667	0.121569
-0.378125	-0.0666667	0.164706
-0.375	-0.0666667	0.180392
-0.371875	-0.0666667	0.184314
-0.36875	-0.0666667	0.184314
-0.365625	-0.0666667	0.188235
-0.3625	-0.0666667	0.188235
-0.359375	-0.0666667	0.188235
-0.35625	-0.0666667	0.188235
-0.353125	-0.0666667	0.188235
-0.35	-0.0666667	0.188235
-0.346875	-0.0666667	0.188235
-0.34375	-0.0666667	0.188235
-0.340625	-0.0666667	0.188235
-0.3375	-0.0666667	0.188235
-0.334375	-0.0666667	0.188235
-0.33125	-0.0666667	0.188235
-0.328125	-0.0666667	0.188235
-0.325	-0.0666667	0.188235
-0.321875	-0.0666667	0.188235
-0.31875	-0.0666667	0.188235
-0.315625	-0.0666667	0.188235
-0.3125	-0.0666667	0.192157
-0.309375	-0.0666667	0.192157
-0.30625	-0.0666667	0.192157
-0.303125	-0.0666667	0.192157
-0.3	-0.0666667	0.192157
-0.296875	-0.0666667	0.2
-0.29375	-0.0666667	0.207843
-0.290625	-0.0666667	0.211765
-0.2875	-0.0666667	0.215686
-0.284375	-0.0666667	0.215686
-0.28125	-0.0666667	0.215686
-0.278125	-0.0666667	0.219608
-0.275	-0.0666667	0.223529
-0.271875	-0.0666667	0.227451
-0.26875	-0.0666667	0.227451
-0.265625	-0.0666667	0.231373
-0.2625	-0.0666667	0.231373
-0.259375	-0.0666667	0.231373
-0.25625	-0.0666667	0.231373
-0.253125	-0.0666667	0.231373
-0.25	-0.0666667	0.235294
-0.246875	-0.0666667	0.235294
-0.24375	-0.0666667	0.235294
-0.240625	-0.0666667	0.235294
-0.2375	-0.0666667	0.235294
-0.234375	-0.0666667	0.239216
-0.23125	-0.0666667	0.239216
-0.228125	-0.0666667	0.239216
-0.225	-0.0666667	0.239216
-0.221875	-0.0666667	0.239216
-0.21875	-0.0666667	0.243137
-0.215625	-0.0666667	0.243137
-0.2125	-0.0666667	0.243137
-0.209375	-0.0666667	0.243137
-0.20625	-0.0666667	0.243137
-0.203125	-0.0666667	0.243137
-0.2	-0.0666667	0.247059
-0.196875	-0.0666667	0.247059
-0.19375	-0.0666667	0.247059
-0.190625	-0.0666667	0.247059
-0.1875	-0.0666667	0.247059
-0.184375	-0.0666667	0.247059
-0.18125	-0.0666667	0.247059
-0.178125	-0.0666667	0.247059
-0.175	-0.0666667	0.247059
-0.171875	-0.0666667	0.247059
-0.16875	-0.0666667	0.25098
-0.165625	-0.0666667	0.25098
-0.1625	-0.0666667	0.254902
-0.159375	-0.0666667	0.254902
-0.15625	-0.0666667	0.254902
-0.153125	-0.0666667	0.254902
-0.15	-0.0666667	0.258824
-0.146875	-0.0666667	0.258824
-0.14375	-0.0666667	0.258824
-0.140625	-0.0666667	0.258824
-0.1375	-0.0666667	0.258824
-0.134375	-0.0666667	0.258824
-0.13125	-0.0666667	0.258824
-0.128125	-0.0666667	0.258824
-0.125	-0.0666667	0.258824
-0.121875	-0.0666667	0.262745
-0.11875	-0.0666667	0.262745
-0.115625	-0.0666667	0.262745
-0.1125	-0.0666667	0.262745
-0.109375	-0.0666667	0.262745
-0.10625	-0.0666667	0.266667
-0.103125	-0.0666667	0.266667
-0.1	-0.0666667	0.266667
-0.096875	-0.0666667	0.266667
-0.09375	-0.0666667	0.266667
-0.090625	-0.0666667	0.266667
-0.0875	-0.0666667	0.266667
-0.084375	-0.0666667	0.266667
-0.08125	-0.0666667	0.266667
-0.078125	-0.0666667	0.266667
-0.075	-0.0666667	0.266667
-0.071875	-0.0666667	0.266667
-0.06875	-0.0666667	0.266667
-0.065625	-0.0666667	0.266667
-0.0625	-0.0666667	0.270588
-0.059375	-0.0666667	0.270588
-0.05625	-0.0666667	0.270588
-0.053125	-0.0666667	0.27451
-0.05	-0.0666667	0.27451
-0.046875	-0.0666667	0.27451
-0.04375	-0.0666667	0.27451
-0.040625	-0.0666667	0.27451
-0.0375	-0.0666667	0.27451
-0.034375	-0.0666667	0.27451
-0.03125	-0.0666667	0.278431
-0.028125	-0.0666667	0.278431
-0.025	-0.0666667	0.278431
-0.021875	-0.0666667	0.278431
-0.01875	-0.0666667	0.278431
-0.015625	-0.0666667	0.278431
-0.0125	-0.0666667	0.278431
-0.00937498	-0.0666667	0.278431
-0.00625002	-0.0666667	0.278431
-0.00312501	-0.0666667	0.278431
0	-0.0666667	0.278431
0.00312495	-0.0666667	0.278431
0.00625002	-0.0666667	0.278431
0.00937498	-0.0666667	0.282353
0.0125	-0.0666667	0.282353
0.015625	-0.0666667	0.282353
0.01875	-0.0666667	0.282353
0.021875	-0.0666667	0.282353
0.025	-0.0666667	0.282353
0.028125	-0.0666667	0.282353
0.03125	-0.0666667	0.282353
0.034375	-0.0666667	0.282353
0.0375	-0.0666667	0.282353
0.040625	-0.0666667	0.278431
0.04375	-0.0666667	0.278431
0.046875	-0.0666667	0.278431
0.05	-0.0666667	0.278431
0.053125	-0.0666667	0.278431
0.05625	-0.0666667	0.278431
0.059375	-0.0666667	0.278431
0.0625	-0.0666667	0.278431
0.065625	-0.0666667	0.278431
0.06875	-0.0666667	0.278431
0.071875	-0.0666667	0.278431
0.075	-0.0666667	0.278431
0.078125	-0.0666667	0.278431
0.08125	-0.0666667	0.278431
0.084375	-0.0666667	0.278431
0.0875	-0.0666667	0.278431
0.090625	-0.0666667	0.278431
0.09375	-0.0666667	0.278431
0.096875	-0.0666667	0.278431
0.1	-0.0666667	0.278431
0.103125	-0.0666667	0.278431
0.10625	-0.0666667	0.278431
0.109375	-0.0666667	0.278431
0.1125	-0.0666667	0.278431
0.115625	-0.0666667	0.278431
0.11875	-0.0666667	0.278431
0.121875	-0.0666667	0.278431
0.125	-0.0666667	0.27451
0.128125	-0.0666667	0.27451
0.13125	-0.0666667	0.27451
0.134375	-0.0666667	0.27451
0.1375	-0.0666667	0.27451
0.140625	-0.0666667	0.27451
0.14375	-0.0666667	0.27451
0.146875	-0.0666667	0.27451
0.15	-0.0666667	0.27451
0.153125	-0.0666667	0.27451
0.15625	-0.0666667	0.27451
0.159375	-0.0666667	0.27451
0.1625	-0.0666667	0.27451
0.165625	-0.0666667	0.270588
0.16875	-0.0666667	0.270588
0.171875	-0.0666667	0.270588
0.175	-0.0666667	0.270588
0.178125	-0.0666667	0.270588
0.18125	-0.0666667	0.266667
0.184375	-0.0666667	0.266667
0.1875	-0.0666667	0.266667
0.190625	-0.0666667	0.266667
0.19375	-0.0666667	0.266667
0.196875	-0.0666667	0.266667
0.2	-0.0666667	0.262745
0.203125	-0.0666667	0.258824
0.20625	-0.0666667	0.258824
0.209375	-0.0666667	0.258824
0.2125	-0.0666667	0.258824
0.215625	-0.0666667	0.254902
0.21875	-0.0666667	0.254902
0.221875	-0.0666667	0.25098
0.225	-0.0666667	0.25098
0.228125	-0.0666667	0.247059
0.23125	-0.0666667	0.239216
0.234375	-0.0666667	0.215686
0.2375	-0.0666667	0.164706
0.240625	-0.0666667	0.105882
0.24375	-0.0666667	0.0627451
0.246875	-0.0666667	0.0313726
0.25	-0.0666667	0.0352941
0.253125	-0.0666667	0.0862745
0.25625	-0.0666667	0.164706
0.259375	-0.0666667	0.215686
0.2625	-0.0666667	0.235294
0.265625	-0.0666667	0.235294
0.26875	-0.0666667	0.235294
0.271875	-0.0666667	0.235294
0.275	-0.0666667	0.235294
0.278125	-0.0666667	0.231373
0.28125	-0.0666667	0.231373
0.284375	-0.0666667	0.231373
0.2875	-0.0666667	0.227451
0.290625	-0.0666667	0.223529
0.29375	-0.0666667	0.223529
0.296875	-0.0666667	0.223529
0.3	-0.0666667	0.223529
0.303125	-0.0666667	0.219608
0.30625	-0.0666667	0.219608
0.309375	-0.0666667	0.219608
0.3125	-0.0666667	0.219608
0.315625	-0.0666667	0.219608
0.31875	-0.0666667	0.219608
0.321875	-0.0666667	0.215686
0.325	-0.0666667	0.211765
0.328125	-0.0666667	0.211765
0.33125	-0.0666667	0.203922
0.334375	-0.0666667	0.2
0.3375	-0.0666667	0.196078
0.340625	-0.0666667	0.196078
0.34375	-0.0666667	0.196078
0.346875	-0.0666667	0.196078
0.35	-0.0666667	0.196078
0.353125	-0.0666667	0.196078
0.35625	-0.0666667	0.196078
0.359375	-0.0666667	0.196078
0.3625	-0.0666667	0.196078
0.365625	-0.0666667	0.196078
0.36875	-0.0666667	0.196078
0.371875	-0.0666667	0.196078
0.375	-0.0666667	0.192157
0.378125	-0.0666667	0.192157
0.38125	-0.0666667	0.188235
0.384375	-0.0666667	0.188235
0.3875	-0.0666667	0.188235
0.390625	-0.0666667	0.188235
0.39375	-0.0666667	0.188235
0.396875	-0.0666667	0.188235
0.4	-0.0666667	0.188235
0.403125	-0.0666667	0.184314
0.40625	-0.0666667	0.184314
0.409375	-0.0666667	0.180392
0.4125	-0.0666667	0.180392
0.415625	-0.0666667	0.180392
0.41875	-0.0666667	0.180392
0.421875	-0.0666667	0.176471
0.425	-0.0666667	0.172549
0.428125	-0.0666667	0.160784
0.43125	-0.0666667	0.121569
0.434375	-0.0666667	0.0588235
0.4375	-0.0666667	0.0156863
-0.390625	-0.0625	0.00392157
-0.3875	-0.0625	0.027451
-0.384375	-0.0625	0.0784314
-0.38125	-0.0625	0.137255
-0.378125	-0.0625	0.168627
-0.375	-0.0625	0.184314
-0.371875	-0.0625	0.184314
-0.36875	-0.0625	0.184314
-0.365625	-0.0625	0.184314
-0.3625	-0.0625	0.188235
-0.359375	-0.0625	0.188235
-0.35625	-0.0625	0.188235
-0.353125	-0.0625	0.188235
-0.35	-0.0625	0.188235
-0.346875	-0.0625	0.188235
-0.34375	-0.0625	0.188235
-0.340625	-0.0625	0.188235
-0.3375	-0.0625	0.188235
-0.334375	-0.0625	0.188235
-0.33125	-0.0625	0.188235
-0.328125	-0.0625	0.188235
-0.325	-0.0625	0.188235
-0.321875	-0.0625	0.188235
-0.31875	-0.0625	0.188235
-0.315625	-0.0625	0.188235
-0.3125	-0.0625	0.192157
-0.309375	-0.0625	0.192157
-0.30625	-0.0625	0.192157
-0.303125	-0.0625	0.192157
-0.3	-0.0625	0.192157
-0.296875	-0.0625	0.2
-0.29375	-0.0625	0.203922
-0.290625	-0.0625	0.211765
-0.2875	-0.0625	0.211765
-0.284375	-0.0625	0.215686
-0.28125	-0.0625	0.215686
-0.278125	-0.0625	0.219608
-0.275	-0.0625	0.223529
-0.271875	-0.0625	0.227451
-0.26875	-0.0625	0.227451
-0.265625	-0.0625	0.227451
-0.2625	-0.0625	0.231373
-0.259375	-0.0625	0.231373
-0.25625	-0.0625	0.231373
-0.253125	-0.0625	0.231373
-0.25	-0.0625	0.235294
-0.246875	-0.0625	0.235294
-0.24375	-0.0625	0.235294
-0.240625	-0.0625	0.235294
-0.2375	-0.0625	0.235294
-0.234375	-0.0625	0.239216
-0.23125	-0.0625	0.239216
-0.228125	-0.0625	0.239216
-0.225	-0.0625	0.239216
-0.221875	-0.0625	0.239216
-0.21875	-0.0625	0.243137
-0.215625	-0.0625	0.243137
-0.2125	-0.0625	0.243137
-0.209375	-0.0625	0.243137
-0.20625	-0.0625	0.243137
-0.203125	-0.0625	0.243137
-0.2	-0.0625	0.247059
-0.196875	-0.0625	0.247059
-0.19375	-0.0625	0.247059
-0.190625	-0.0625	0.247059
-0.1875	-0.0625	0.247059
-0.184375	-0.0625	0.247059
-0.18125	-0.0625	0.247059
-0.178125	-0.0625	0.247059
-0.175	-0.0625	0.247059
-0.171875	-0.0625	0.247059
-0.16875	-0.0625	0.25098
-0.165625	-0.0625	0.25098
-0.1625	-0.0625	0.254902
-0.159375	-0.0625	0.254902
-0.15625	-0.0625	0.254902
-0.153125	-0.0625	0.254902
-0.15	-0.0625	0.258824
-0.146875	-0.0625	0.258824
-0.14375	-0.0625	0.258824
-0.140625	-0.0625	0.258824
-0.1375	-0.0625	0.258824
-0.134375	-0.0625	0.258824
-0.13125	-0.0625	0.258824
-0.128125	-0.0625	0.258824
-0.125	-0.0625	0.258824
-0.121875	-0.0625	0.262745
-0.11875	-0.0625	0.262745
-0.115625	-0.0625	0.262745
-0.1125	-0.0625	0.262745
-0.109375	-0.0625	0.262745
-0.10625	-0.0625	0.266667
-0.103125	-0.0625	0.266667
-0.1	-0.0625	0.266667
-0.096875	-0.0625	0.266667
-0.09375	-0.0625	0.266667
-0.090625	-0.0625	0.266667
-0.0875	-0.0625	0.266667
-0.084375	-0.0625	0.266667
-0.08125	-0.0625	0.266667
-0.078125	-0.0625	0.266667
-0.075	-0.0625	0.266667
-0.071875	-0.0625	0.266667
-0.06875	-0.0625	0.266667
-0.065625	-0.0625	0.270588
-0.0625	-0.0625	0.270588
-0.059375	-0.0625	0.270588
-0.05625	-0.0625	0.270588
-0.053125	-0.0625	0.27451
-0.05	-0.0625	0.27451
-0.046875	-0.0625	0.27451
-0.04375	-0.0625	0.27451
-0.040625	-0.0625	0.27451
-0.0375	-0.0625	0.27451
-0.034375	-0.0625	0.27451
-0.03125	-0.0625	0.27451
-0.028125	-0.0625	0.27451
-0.025	-0.0625	0.278431
-0.021875	-0.0625	0.278431
-0.01875	-0.0625	0.278431
-0.015625	-0.0625	0.278431
-0.0125	-0.0625	0.278431
-0.00937498	-0.0625	0.278431
-0.00625002	-0.0625	0.278431
-0.00312501	-0.0625	0.278431
0	-0.0625	0.278431
0.00312495	-0.0625	0.278431
0.00625002	-0.0625	0.278431
0.00937498	-0.0625	0.278431
0.0125	-0.0625	0.278431
0.015625	-0.0625	0.278431
0.01875	-0.0625	0.278431
0.021875	-0.0625	0.278431
0.025	-0.0625	0.278431
0.028125	-0.0625	0.278431
0.03125	-0.0625	0.278431
0.034375	-0.0625	0.278431
0.0375	-0.0625	0.278431
0.040625	-0.0625	0.278431
0.04375	-0.0625	0.278431
0.046875	-0.0625	0.278431
0.05	-0.0625	0.278431
0.053125	-0.0625	0.278431
0.05625	-0.0625	0.278431
0.059375	-0.0625	0.278431
0.0625	-0.0625	0.278431
0.065625	-0.0625	0.278431
0.06875	-0.0625	0.278431
0.071875	-0.0625	0.278431
0.075	-0.0625	0.278431
0.078125	-0.0625	0.278431
0.08125	-0.0625	0.278431
0.084375	-0.0625	0.278431
0.0875	-0.0625	0.278431
0.090625	-0.0625	0.278431
0.09375	-0.0625	0.278431
0.096875	-0.0625	0.278431
0.1	-0.0625	0.27451
0.103125	-0.0625	0.27451
0.10625	-0.0625	0.27451
0.109375	-0.0625	0.278431
0.1125	-0.0625	0.278431
0.115625	-0.0625	0.27451
0.11875	-0.0625	0.27451
0.121875	-0.0625	0.27451
0.125	-0.0625	0.27451
0.128125	-0.0625	0.27451
0.13125	-0.0625	0.27451
0.134375	-0.0625	0.27451
0.1375	-0.0625	0.27451
0.140625	-0.0625	0.27451
0.14375	-0.0625	0.27451
0.146875	-0.0625	0.27451
0.15	-0.0625	0.27451
0.153125	-0.0625	0.27451
0.15625	-0.0625	0.27451
0.159375	-0.0625	0.27451
0.1625	-0.0625	0.27451
0.165625	-0.0625	0.270588
0.16875	-0.0625	0.270588
0.171875	-0.0625	0.270588
0.175	-0.0625	0.270588
0.178125	-0.0625	0.270588
0.18125	-0.0625	0.266667
0.184375	-0.0625	0.266667
0.1875	-0.0625	0.266667
0.190625	-0.0625	0.266667
0.19375	-0.0625	0.266667
0.196875	-0.0625	0.266667
0.2	-0.0625	0.262745
0.203125	-0.0625	0.258824
0.20625	-0.0625	0.258824
0.209375	-0.0625	0.258824
0.2125	-0.0625	0.258824
0.215625	-0.0625	0.254902
0.21875	-0.0625	0.254902
0.221875	-0.0625	0.25098
0.225	-0.0625	0.25098
0.228125	-0.0625	0.25098
0.23125	-0.0625	0.239216
0.234375	-0.0625	0.215686
0.2375	-0.0625	0.168627
0.240625	-0.0625	0.133333
0.24375	-0.0625	0.109804
0.246875	-0.0625	0.0784314
0.25	-0.0625	0.0784314
0.253125	-0.0625	0.121569
0.25625	-0.0625	0.184314
0.259375	-0.0625	0.223529
0.2625	-0.0625	0.235294
0.265625	-0.0625	0.235294
0.26875	-0.0625	0.235294
0.271875	-0.0625	0.235294
0.275	-0.0625	0.235294
0.278125	-0.0625	0.231373
0.28125	-0.0625	0.231373
0.284375	-0.0625	0.231373
0.2875	-0.0625	0.227451
0.290625	-0.0625	0.223529
0.29375	-0.0625	0.223529
0.296875	-0.0625	0.223529
0.3	-0.0625	0.223529
0.303125	-0.0625	0.223529
0.30625	-0.0625	0.219608
0.309375	-0.0625	0.219608
0.3125	-0.0625	0.219608
0.315625	-0.0625	0.219608
0.31875	-0.0625	0.219608
0.321875	-0.0625	0.215686
0.325	-0.0625	0.211765
0.328125	-0.0625	0.211765
0.33125	-0.0625	0.207843
0.334375	-0.0625	0.2
0.3375	-0.0625	0.196078
0.340625	-0.0625	0.196078
0.34375	-0.0625	0.196078
0.346875	-0.0625	0.196078
0.35	-0.0625	0.196078
0.353125	-0.0625	0.196078
0.35625	-0.0625	0.196078
0.359375	-0.0625	0.196078
0.3625	-0.0625	0.196078
0.365625	-0.0625	0.196078
0.36875	-0.0625	0.196078
0.371875	-0.0625	0.192157
0.375	-0.0625	0.192157
0.378125	-0.0625	0.188235
0.38125	-0.0625	0.188235
0.384375	-0.0625	0.188235
0.3875	-0.0625	0.188235
0.390625	-0.0625	0.188235
0.39375	-0.0625	0.188235
0.396875	-0.0625	0.188235
0.4	-0.0625	0.188235
0.403125	-0.0625	0.184314
0.40625	-0.0625	0.184314
0.409375	-0.0625	0.180392
0.4125	-0.0625	0.180392
0.415625	-0.0625	0.180392
0.41875	-0.0625	0.180392
0.421875	-0.0625	0.176471
0.425	-0.0625	0.172549
0.428125	-0.0625	0.160784
0.43125	-0.0625	0.121569
0.434375	-0.0625	0.0588235
0.4375	-0.0625	0.0156863
-0.390625	-0.0583333	0.0117647
-0.3875	-0.0583333	0.0431373
-0.384375	-0.0583333	0.101961
-0.38125	-0.0583333	0.152941
-0.378125	-0.0583333	0.176471
-0.375	-0.0583333	0.180392
-0.371875	-0.0583333	0.184314
-0.36875	-0.0583333	0.184314
-0.365625	-0.0583333	0.184314
-0.3625	-0.0583333	0.188235
-0.359375	-0.0583333	0.188235
-0.35625	-0.0583333	0.188235
-0.353125	-0.0583333	0.188235
-0.35	-0.0583333	0.192157
-0.346875	-0.0583333	0.192157
-0.34375	-0.0583333	0.188235
-0.340625	-0.0583333	0.188235
-0.3375	-0.0583333	0.188235
-0.334375	-0.0583333	0.188235
-0.33125	-0.0583333	0.188235
-0.328125	-0.0583333	0.188235
-0.325	-0.0583333	0.188235
-0.321875	-0.0583333	0.188235
-0.31875	-0.0583333	0.188235
-0.315625	-0.0583333	0.188235
-0.3125	-0.0583333	0.188235
-0.309375	-0.0583333	0.192157
-0.30625	-0.0583333	0.192157
-0.303125	-0.0583333	0.192157
-0.3	-0.0583333	0.192157
-0.296875	-0.0583333	0.196078
-0.29375	-0.0583333	0.203922
-0.290625	-0.0583333	0.207843
-0.2875	-0.0583333	0.211765
-0.284375	-0.0583333	0.211765
-0.28125	-0.0583333	0.215686
-0.278125	-0.0583333	0.219608
-0.275	-0.0583333	0.223529
-0.271875	-0.0583333	0.227451
-0.26875	-0.0583333	0.227451
-0.265625	-0.0583333	0.227451
-0.2625	-0.0583333	0.231373
-0.259375	-0.0583333	0.231373
-0.25625	-0.0583333	0.231373
-0.253125	-0.0583333	0.231373
-0.25	-0.0583333	0.235294
-0.246875	-0.0583333	0.235294
-0.24375	-0.0583333	0.235294
-0.240625	-0.0583333	0.235294
-0.2375	-0.0583333	0.235294
-0.234375	-0.0583333	0.239216
-0.23125	-0.0583333	0.239216
-0.228125	-0.0583333	0.239216
-0.225	-0.0583333	0.239216
-0.221875	-0.0583333	0.239216
-0.21875	-0.0583333	0.243137
-0.215625	-0.0583333	0.243137
-0.2125	-0.0583333	0.243137
-0.209375	-0.0583333	0.243137
-0.20625	-0.0583333	0.243137
-0.203125	-0.0583333	0.243137
-0.2	-0.0583333	0.247059
-0.196875	-0.0583333	0.247059
-0.19375	-0.0583333	0.247059
-0.190625	-0.0583333	0.247059
-0.1875	-0.0583333	0.247059
-0.184375	-0.0583333	0.247059
-0.18125	-0.0583333	0.247059
-0.178125	-0.0583333	0.247059
-0.175	-0.0583333	0.247059
-0.171875	-0.0583333	0.247059
-0.16875	-0.0583333	0.25098
-0.165625	-0.0583333	0.25098
-0.1625	-0.0583333	0.25098
-0.159375	-0.0583333	0.254902
-0.15625	-0.0583333	0.254902
-0.153125	-0.0583333	0.254902
-0.15	-0.0583333	0.258824
-0.146875	-0.0583333	0.258824
-0.14375	-0.0583333	0.258824
-0.140625	-0.0583333	0.258824
-0.1375	-0.0583333	0.258824
-0.134375	-0.0583333	0.258824
-0.13125	-0.0583333	0.258824
-0.128125	-0.0583333	0.258824
-0.125	-0.0583333	0.258824
-0.121875	-0.0583333	0.262745
-0.11875	-0.0583333	0.262745
-0.115625	-0.0583333	0.262745
-0.1125	-0.0583333	0.262745
-0.109375	-0.0583333	0.262745
-0.10625	-0.0583333	0.266667
-0.103125	-0.0583333	0.266667
-0.1	-0.0583333	0.266667
-0.096875	-0.0583333	0.266667
-0.09375	-0.0583333	0.266667
-0.090625	-0.0583333	0.266667
-0.0875	-0.0583333	0.266667
-0.084375	-0.0583333	0.266667
-0.08125	-0.0583333	0.266667
-0.078125	-0.0583333	0.266667
-0.075	-0.0583333	0.270588
-0.071875	-0.0583333	0.270588
-0.06875	-0.0583333	0.270588
-0.065625	-0.0583333	0.270588
-0.0625	-0.0583333	0.270588
-0.059375	-0.0583333	0.270588
-0.05625	-0.0583333	0.27451
-0.053125	-0.0583333	0.27451
-0.05	-0.0583333	0.27451
-0.046875	-0.0583333	0.27451
-0.04375	-0.0583333	0.27451
-0.040625	-0.0583333	0.27451
-0.0375	-0.0583333	0.27451
-0.034375	-0.0583333	0.27451
-0.03125	-0.0583333	0.27451
-0.028125	-0.0583333	0.27451
-0.025	-0.0583333	0.278431
-0.021875	-0.0583333	0.278431
-0.01875	-0.0583333	0.278431
-0.015625	-0.0583333	0.278431
-0.0125	-0.0583333	0.278431
-0.00937498	-0.0583333	0.278431
-0.00625002	-0.0583333	0.278431
-0.00312501	-0.0583333	0.278431
0	-0.0583333	0.278431
0.00312495	-0.0583333	0.278431
0.00625002	-0.0583333	0.278431
0.00937498	-0.0583333	0.278431
0.0125	-0.0583333	0.278431
0.015625	-0.0583333	0.278431
0.01875	-0.0583333	0.278431
0.021875	-0.0583333	0.278431
0.025	-0.0583333	0.278431
0.028125	-0.0583333	0.278431
0.03125	-0.0583333	0.278431
0.034375	-0.0583333	0.278431
0.0375	-0.0583333	0.278431
0.040625	-0.0583333	0.278431
0.04375	-0.0583333	0.278431
0.046875	-0.0583333	0.278431
0.05	-0.0583333	0.278431
0.053125	-0.0583333	0.278431
0.05625	-0.0583333	0.278431
0.059375	-0.0583333	0.278431
0.0625	-0.0583333	0.278431
0.065625	-0.0583333	0.278431
0.06875	-0.0583333	0.278431
0.071875	-0.0583333	0.278431
0.075	-0.0583333	0.278431
0.078125	-0.0583333	0.278431
0.08125	-0.0583333	0.278431
0.084375	-0.0583333	0.278431
0.0875	-0.0583333	0.278431
0.090625	-0.0583333	0.27451
0.09375	-0.0583333	0.27451
0.096875	-0.0583333	0.27451
0.1	-0.0583333	0.27451
0.103125	-0.0583333	0.27451
0.10625	-0.0583333	0.27451
0.109375	-0.0583333	0.27451
0.1125	-0.0583333	0.27451
0.115625	-0.0583333	0.27451
0.11875	-0.0583333	0.27451
0.121875	-0.0583333	0.27451
0.125	-0.0583333	0.27451
0.128125	-0.0583333	0.27451
0.13125	-0.0583333	0.27451
0.134375	-0.0583333	0.27451
0.1375	-0.0583333	0.27451
0.140625	-0.0583333	0.27451
0.14375	-0.0583333	0.27451
0.146875	-0.0583333	0.27451
0.15	-0.0583333	0.27451
0.153125	-0.0583333	0.27451
0.15625	-0.0583333	0.27451
0.159375	-0.0583333	0.27451
0.1625	-0.0583333	0.27451
0.165625	-0.0583333	0.270588
0.16875	-0.0583333	0.270588
0.171875	-0.0583333	0.270588
0.175	-0.0583333	0.270588
0.178125	-0.0583333	0.266667
0.18125	-0.0583333	0.266667
0.184375	-0.0583333	0.266667
0.1875	-0.0583333	0.266667
0.190625	-0.0583333	0.266667
0.19375	-0.0583333	0.266667
0.196875	-0.0583333	0.266667
0.2	-0.0583333	0.262745
0.203125	-0.0583333	0.262745
0.20625	-0.0583333	0.258824
0.209375	-0.0583333	0.258824
0.2125	-0.0583333	0.258824
0.215625	-0.0583333	0.254902
0.21875	-0.0583333	0.254902
0.221875	-0.0583333	0.25098
0.225	-0.0583333	0.25098
0.228125	-0.0583333	0.25098
0.23125	-0.0583333	0.243137
0.234375	-0.0583333	0.227451
0.2375	-0.0583333	0.203922
0.240625	-0.0583333	0.188235
0.24375	-0.0583333	0.172549
0.246875	-0.0583333	0.145098
0.25	-0.0583333	0.152941
0.253125	-0.0583333	0.180392
0.25625	-0.0583333	0.211765
0.259375	-0.0583333	0.227451
0.2625	-0.0583333	0.235294
0.265625	-0.0583333	0.235294
0.26875	-0.0583333	0.235294
0.271875	-0.0583333	0.235294
0.275	-0.0583333	0.235294
0.278125	-0.0583333	0.231373
0.28125	-0.0583333	0.231373
0.284375	-0.0583333	0.231373
0.2875	-0.0583333	0.231373
0.290625	-0.0583333	0.227451
0.29375	-0.0583333	0.223529
0.296875	-0.0583333	0.223529
0.3	-0.0583333	0.223529
0.303125	-0.0583333	0.223529
0.30625	-0.0583333	0.219608
0.309375	-0.0583333	0.219608
0.3125	-0.0583333	0.219608
0.315625	-0.0583333	0.219608
0.31875	-0.0583333	0.219608
0.321875	-0.0583333	0.215686
0.325	-0.0583333	0.215686
0.328125	-0.0583333	0.211765
0.33125	-0.0583333	0.207843
0.334375	-0.0583333	0.2
0.3375	-0.0583333	0.196078
0.340625	-0.0583333	0.196078
0.34375	-0.0583333	0.196078
0.346875	-0.0583333	0.196078
0.35	-0.0583333	0.196078
0.353125	-0.0583333	0.196078
0.35625	-0.0583333	0.196078
0.359375	-0.0583333	0.196078
0.3625	-0.0583333	0.196078
0.365625	-0.0583333	0.196078
0.36875	-0.0583333	0.192157
0.371875	-0.0583333	0.192157
0.375	-0.0583333	0.188235
0.378125	-0.0583333	0.188235
0.38125	-0.0583333	0.188235
0.384375	-0.0583333	0.188235
0.3875	-0.0583333	0.188235
0.390625	-0.0583333	0.188235
0.39375	-0.0583333	0.188235
0.396875	-0.0583333	0.188235
0.4	-0.0583333	0.188235
0.403125	-0.0583333	0.184314
0.40625	-0.0583333	0.184314
0.409375	-0.0583333	0.180392
0.4125	-0.0583333	0.180392
0.415625	-0.0583333	0.180392
0.41875	-0.0583333	0.180392
0.421875	-0.0583333	0.176471
0.425	-0.0583333	0.172549
0.428125	-0.0583333	0.160784
0.43125	-0.0583333	0.129412
0.434375	-0.0583333	0.0705882
0.4375	-0.0583333	0.0235294
0.440625	-0.0583333	0.00392157
-0.390625	-0.0541667	0.0156863
-0.3875	-0.0541667	0.0509804
-0.384375	-0.0541667	0.121569
-0.38125	-0.0541667	0.160784
-0.378125	-0.0541667	0.180392
-0.375	-0.0541667	0.180392
-0.371875	-0.0541667	0.184314
-0.36875	-0.0541667	0.184314
-0.365625	-0.0541667	0.184314
-0.3625	-0.0541667	0.188235
-0.359375	-0.0541667	0.188235
-0.35625	-0.0541667	0.188235
-0.353125	-0.0541667	0.192157
-0.35	-0.0541667	0.192157
-0.346875	-0.0541667	0.192157
-0.34375	-0.0541667	0.188235
-0.340625	-0.0541667	0.188235
-0.3375	-0.0541667	0.188235
-0.334375	-0.0541667	0.188235
-0.33125	-0.0541667	0.188235
-0.328125	-0.0541667	0.188235
-0.325	-0.0541667	0.188235
-0.321875	-0.0541667	0.188235
-0.31875	-0.0541667	0.188235
-0.315625	-0.0541667	0.188235
-0.3125	-0.0541667	0.188235
-0.309375	-0.0541667	0.192157
-0.30625	-0.0541667	0.192157
-0.303125	-0.0541667	0.192157
-0.3	-0.0541667	0.196078
-0.296875	-0.0541667	0.196078
-0.29375	-0.0541667	0.2
-0.290625	-0.0541667	0.207843
-0.2875	-0.0541667	0.211765
-0.284375	-0.0541667	0.211765
-0.28125	-0.0541667	0.215686
-0.278125	-0.0541667	0.219608
-0.275	-0.0541667	0.223529
-0.271875	-0.0541667	0.227451
-0.26875	-0.0541667	0.227451
-0.265625	-0.0541667	0.227451
-0.2625	-0.0541667	0.231373
-0.259375	-0.0541667	0.231373
-0.25625	-0.0541667	0.231373
-0.253125	-0.0541667	0.235294
-0.25	-0.0541667	0.235294
-0.246875	-0.0541667	0.235294
-0.24375	-0.0541667	0.235294
-0.240625	-0.0541667	0.235294
-0.2375	-0.0541667	0.235294
-0.234375	-0.0541667	0.239216
-0.23125	-0.0541667	0.239216
-0.228125	-0.0541667	0.239216
-0.225	-0.0541667	0.239216
-0.221875	-0.0541667	0.239216
-0.21875	-0.0541667	0.243137
-0.215625	-0.0541667	0.243137
-0.2125	-0.0541667	0.243137
-0.209375	-0.0541667	0.243137
-0.20625	-0.0541667	0.243137
-0.203125	-0.0541667	0.247059
-0.2	-0.0541667	0.247059
-0.196875	-0.0541667	0.247059
-0.19375	-0.0541667	0.247059
-0.190625	-0.0541667	0.247059
-0.1875	-0.0541667	0.247059
-0.184375	-0.0541667	0.247059
-0.18125	-0.0541667	0.247059
-0.178125	-0.0541667	0.247059
-0.175	-0.0541667	0.247059
-0.171875	-0.0541667	0.247059
-0.16875	-0.0541667	0.25098
-0.165625	-0.0541667	0.25098
-0.1625	-0.0541667	0.25098
-0.159375	-0.0541667	0.254902
-0.15625	-0.0541667	0.254902
-0.153125	-0.0541667	0.254902
-0.15	-0.0541667	0.258824
-0.146875	-0.0541667	0.258824
-0.14375	-0.0541667	0.258824
-0.140625	-0.0541667	0.258824
-0.1375	-0.0541667	0.258824
-0.134375	-0.0541667	0.258824
-0.13125	-0.0541667	0.258824
-0.128125	-0.0541667	0.258824
-0.125	-0.0541667	0.262745
-0.121875	-0.0541667	0.262745
-0.11875	-0.0541667	0.262745
-0.115625	-0.0541667	0.262745
-0.1125	-0.0541667	0.262745
-0.109375	-0.0541667	0.262745
-0.10625	-0.0541667	0.266667
-0.103125	-0.0541667	0.266667
-0.1	-0.0541667	0.266667
-0.096875	-0.0541667	0.266667
-0.09375	-0.0541667	0.266667
-0.090625	-0.0541667	0.266667
-0.0875	-0.0541667	0.266667
-0.084375	-0.0541667	0.266667
-0.08125	-0.0541667	0.266667
-0.078125	-0.0541667	0.266667
-0.075	-0.0541667	0.270588
-0.071875	-0.0541667	0.270588
-0.06875	-0.0541667	0.270588
-0.065625	-0.0541667	0.270588
-0.0625	-0.0541667	0.270588
-0.059375	-0.0541667	0.27451
-0.05625	-0.0541667	0.27451
-0.053125	-0.0541667	0.27451
-0.05	-0.0541667	0.27451
-0.046875	-0.0541667	0.27451
-0.04375	-0.0541667	0.27451
-0.040625	-0.0541667	0.27451
-0.0375	-0.0541667	0.27451
-0.034375	-0.0541667	0.27451
-0.03125	-0.0541667	0.27451
-0.028125	-0.0541667	0.27451
-0.025	-0.0541667	0.27451
-0.021875	-0.0541667	0.27451
-0.01875	-0.0541667	0.27451
-0.015625	-0.0541667	0.27451
-0.0125	-0.0541667	0.27451
-0.00937498	-0.0541667	0.27451
-0.00625002	-0.0541667	0.278431
-0.00312501	-0.0541667	0.278431
0	-0.0541667	0.278431
0.00312495	-0.0541667	0.278431
0.00625002	-0.0541667	0.278431
0.00937498	-0.0541667	0.278431
0.0125	-0.0541667	0.278431
0.015625	-0.0541667	0.278431
0.01875	-0.0541667	0.278431
0.021875	-0.0541667	0.278431
0.025	-0.0541667	0.278431
0.028125	-0.0541667	0.278431
0.03125	-0.0541667	0.278431
0.034375	-0.0541667	0.278431
0.0375	-0.0541667	0.278431
0.040625	-0.0541667	0.278431
0.04375	-0.0541667	0.278431
0.046875	-0.0541667	0.278431
0.05	-0.0541667	0.278431
0.053125	-0.0541667	0.278431
0.05625	-0.0541667	0.278431
0.059375	-0.0541667	0.278431
0.0625	-0.0541667	0.278431
0.065625	-0.0541667	0.278431
0.06875	-0.0541667	0.278431
0.071875	-0.0541667	0.278431
0.075	-0.0541667	0.278431
0.078125	-0.0541667	0.278431
0.08125	-0.0541667	0.278431
0.084375	-0.0541667	0.278431
0.0875	-0.0541667	0.278431
0.090625	-0.0541667	0.27451
0.09375	-0.0541667	0.27451
0.096875	-0.0541667	0.27451
0.1	-0.0541667	0.27451
0.103125	-0.0541667	0.27451
0.10625	-0.0541667	0.27451
0.109375	-0.0541667	0.27451
0.1125	-0.0541667	0.27451
0.115625	-0.0541667	0.27451
0.11875	-0.0541667	0.27451
0.121875	-0.0541667	0.27451
0.125	-0.0541667	0.27451
0.128125	-0.0541667	0.27451
0.13125	-0.0541667	0.27451
0.134375	-0.0541667	0.27451
0.1375	-0.0541667	0.27451
0.140625	-0.0541667	0.27451
0.14375	-0.0541667	0.27451
0.146875	-0.0541667	0.27451
0.15	-0.0541667	0.27451
0.153125	-0.0541667	0.27451
0.15625	-0.0541667	0.27451
0.159375	-0.0541667	0.270588
0.1625	-0.0541667	0.270588
0.165625	-0.0541667	0.270588
0.16875	-0.0541667	0.270588
0.171875	-0.0541667	0.270588
0.175	-0.0541667	0.266667
0.178125	-0.0541667	0.266667
0.18125	-0.0541667	0.266667
0.184375	-0.0541667	0.266667
0.1875	-0.0541667	0.266667
0.190625	-0.0541667	0.266667
0.19375	-0.0541667	0.266667
0.196875	-0.0541667	0.266667
0.2	-0.0541667	0.262745
0.203125	-0.0541667	0.262745
0.20625	-0.0541667	0.258824
0.209375	-0.0541667	0.258824
0.2125	-0.0541667	0.258824
0.215625	-0.0541667	0.254902
0.21875	-0.0541667	0.254902
0.221875	-0.0541667	0.254902
0.225	-0.0541667	0.25098
0.228125	-0.0541667	0.25098
0.23125	-0.0541667	0.247059
0.234375	-0.0541667	0.243137
0.2375	-0.0541667	0.235294
0.240625	-0.0541667	0.231373
0.24375	-0.0541667	0.219608
0.246875	-0.0541667	0.203922
0.25	-0.0541667	0.207843
0.253125	-0.0541667	0.219608
0.25625	-0.0541667	0.231373
0.259375	-0.0541667	0.235294
0.2625	-0.0541667	0.235294
0.265625	-0.0541667	0.235294
0.26875	-0.0541667	0.235294
0.271875	-0.0541667	0.235294
0.275	-0.0541667	0.235294
0.278125	-0.0541667	0.235294
0.28125	-0.0541667	0.231373
0.284375	-0.0541667	0.231373
0.2875	-0.0541667	0.231373
0.290625	-0.0541667	0.227451
0.29375	-0.0541667	0.223529
0.296875	-0.0541667	0.223529
0.3	-0.0541667	0.223529
0.303125	-0.0541667	0.223529
0.30625	-0.0541667	0.223529
0.309375	-0.0541667	0.219608
0.3125	-0.0541667	0.219608
0.315625	-0.0541667	0.219608
0.31875	-0.0541667	0.219608
0.321875	-0.0541667	0.219608
0.325	-0.0541667	0.215686
0.328125	-0.0541667	0.211765
0.33125	-0.0541667	0.211765
0.334375	-0.0541667	0.203922
0.3375	-0.0541667	0.196078
0.340625	-0.0541667	0.196078
0.34375	-0.0541667	0.196078
0.346875	-0.0541667	0.196078
0.35	-0.0541667	0.196078
0.353125	-0.0541667	0.192157
0.35625	-0.0541667	0.192157
0.359375	-0.0541667	0.192157
0.3625	-0.0541667	0.196078
0.365625	-0.0541667	0.196078
0.36875	-0.0541667	0.192157
0.371875	-0.0541667	0.192157
0.375	-0.0541667	0.188235
0.378125	-0.0541667	0.188235
0.38125	-0.0541667	0.188235
0.384375	-0.0541667	0.188235
0.3875	-0.0541667	0.188235
0.390625	-0.0541667	0.188235
0.39375	-0.0541667	0.188235
0.396875	-0.0541667	0.188235
0.4	-0.0541667	0.188235
0.403125	-0.0541667	0.184314
0.40625	-0.0541667	0.184314
0.409375	-0.0541667	0.180392
0.4125	-0.0541667	0.180392
0.415625	-0.0541667	0.180392
0.41875	-0.0541667	0.180392
0.421875	-0.0541667	0.176471
0.425	-0.0541667	0.172549
0.428125	-0.0541667	0.164706
0.43125	-0.0541667	0.145098
0.434375	-0.0541667	0.0941176
0.4375	-0.0541667	0.0392157
0.440625	-0.0541667	0.00784314
-0.390625	-0.05	0.0156863
-0.3875	-0.05	0.054902
-0.384375	-0.05	0.12549
-0.38125	-0.05	0.164706
-0.378125	-0.05	0.180392
-0.375	-0.05	0.180392
-0.371875	-0.05	0.184314
-0.36875	-0.05	0.184314
-0.365625	-0.05	0.184314
-0.3625	-0.05	0.188235
-0.359375	-0.05	0.188235
-0.35625	-0.05	0.188235
-0.353125	-0.05	0.192157
-0.35	-0.05	0.192157
-0.346875	-0.05	0.192157
-0.34375	-0.05	0.188235
-0.340625	-0.05	0.188235
-0.3375	-0.05	0.188235
-0.334375	-0.05	0.188235
-0.33125	-0.05	0.188235
-0.328125	-0.05	0.188235
-0.325	-0.05	0.188235
-0.321875	-0.05	0.188235
-0.31875	-0.05	0.188235
-0.315625	-0.05	0.188235
-0.3125	-0.05	0.188235
-0.309375	-0.05	0.188235
-0.30625	-0.05	0.192157
-0.303125	-0.05	0.192157
-0.3	-0.05	0.196078
-0.296875	-0.05	0.196078
-0.29375	-0.05	0.2
-0.290625	-0.05	0.203922
-0.2875	-0.05	0.207843
-0.284375	-0.05	0.211765
-0.28125	-0.05	0.211765
-0.278125	-0.05	0.215686
-0.275	-0.05	0.219608
-0.271875	-0.05	0.223529
-0.26875	-0.05	0.227451
-0.265625	-0.05	0.227451
-0.2625	-0.05	0.231373
-0.259375	-0.05	0.231373
-0.25625	-0.05	0.231373
-0.253125	-0.05	0.235294
-0.25	-0.05	0.235294
-0.246875	-0.05	0.235294
-0.24375	-0.05	0.235294
-0.240625	-0.05	0.235294
-0.2375	-0.05	0.235294
-0.234375	-0.05	0.239216
-0.23125	-0.05	0.239216
-0.228125	-0.05	0.239216
-0.225	-0.05	0.239216
-0.221875	-0.05	0.239216
-0.21875	-0.05	0.243137
-0.215625	-0.05	0.243137
-0.2125	-0.05	0.243137
-0.209375	-0.05	0.243137
-0.20625	-0.05	0.243137
-0.203125	-0.05	0.247059
-0.2	-0.05	0.247059
-0.196875	-0.05	0.247059
-0.19375	-0.05	0.247059
-0.190625	-0.05	0.247059
-0.1875	-0.05	0.247059
-0.184375	-0.05	0.247059
-0.18125	-0.05	0.247059
-0.178125	-0.05	0.247059
-0.175	-0.05	0.247059
-0.171875	-0.05	0.25098
-0.16875	-0.05	0.25098
-0.165625	-0.05	0.25098
-0.1625	-0.05	0.254902
-0.159375	-0.05	0.254902
-0.15625	-0.05	0.254902
-0.153125	-0.05	0.254902
-0.15	-0.05	0.258824
-0.146875	-0.05	0.258824
-0.14375	-0.05	0.258824
-0.140625	-0.05	0.258824
-0.1375	-0.05	0.258824
-0.134375	-0.05	0.258824
-0.13125	-0.05	0.258824
-0.128125	-0.05	0.258824
-0.125	-0.05	0.262745
-0.121875	-0.05	0.262745
-0.11875	-0.05	0.262745
-0.115625	-0.05	0.262745
-0.1125	-0.05	0.262745
-0.109375	-0.05	0.262745
-0.10625	-0.05	0.266667
-0.103125	-0.05	0.266667
-0.1	-0.05	0.266667
-0.096875	-0.05	0.266667
-0.09375	-0.05	0.266667
-0.090625	-0.05	0.266667
-0.0875	-0.05	0.266667
-0.084375	-0.05	0.266667
-0.08125	-0.05	0.266667
-0.078125	-0.05	0.266667
-0.075	-0.05	0.270588
-0.071875	-0.05	0.270588
